ply
format ascii 1.0
comment PCL generated
element vertex 1098
property float x
property float y
property float z
property uchar red
property uchar green
property uchar blue
element camera 0
property float view_px
property float view_py
property float view_pz
property float x_axisx
property float x_axisy
property float x_axisz
property float y_axisx
property float y_axisy
property float y_axisz
property float z_axisx
property float z_axisy
property float z_axisz
property float focal
property float scalex
property float scaley
property float centerx
property float centery
property int viewportx
property int viewporty
property float k1
property float k2
end_header
1.003696 1.1147172 1.6 192 192 192
1.1147172 1.003696 1.6 192 192 192
1.2135255 0.88167787 1.6 192 192 192
1.2990381 -0.75 1.6 192 192 192
1.3703182 -0.61010498 1.6 192 192 192
1.4265847 -0.4635255 1.6 192 192 192
1.4672214 -0.31186754 1.6 192 192 192
1.4917828 -0.1567927 1.6 192 192 192
1.5 8.3266727e-016 1.6 192 192 192
1.4917828 0.1567927 1.6 192 192 192
1.4672214 0.31186754 1.6 192 192 192
1.4265847 0.4635255 1.6 192 192 192
1.3703182 0.61010498 1.6 192 192 192
1.2990381 0.75 1.6 192 192 192
1.2135255 0.88167787 1.6 192 192 192
1.1147172 1.003696 1.6 192 192 192
1.003696 1.1147172 1.6 192 192 192
0.88167787 1.2135255 1.6 192 192 192
0.75 1.2990381 1.6 192 192 192
0.61010498 1.3703182 1.6 192 192 192
0.4635255 1.4265847 1.6 192 192 192
0.31186754 1.4672214 1.6 192 192 192
0.1567927 1.4917828 1.6 192 192 192
0 1.5 1.6 192 192 192
-0.1567927 1.4917828 1.6 192 192 192
-0.31186754 1.4672214 1.6 192 192 192
-0.4635255 1.4265847 1.6 192 192 192
-0.61010498 1.3703182 1.6 192 192 192
-0.75 1.2990381 1.6 192 192 192
-0.88167787 1.2135255 1.6 192 192 192
-1.003696 1.1147172 1.6 192 192 192
-1.1147172 1.003696 1.6 192 192 192
-1.2135255 0.88167787 1.6 192 192 192
-1.2990381 0.75 1.6 192 192 192
-1.3703182 0.61010498 1.6 192 192 192
-1.4265847 0.4635255 1.6 192 192 192
-1.4672214 0.31186754 1.6 192 192 192
-1.4917828 0.1567927 1.6 192 192 192
-1.5 1.8369701e-016 1.6 192 192 192
-1.4917828 -0.1567927 1.6 192 192 192
-1.4672214 -0.31186754 1.6 192 192 192
-1.4265847 -0.4635255 1.6 192 192 192
-1.3703182 -0.61010498 1.6 192 192 192
-1.2990381 -0.75 1.6 192 192 192
-1.2135255 -0.88167787 1.6 192 192 192
-1.1147172 -1.003696 1.6 192 192 192
-1.003696 -1.1147172 1.6 192 192 192
-0.88167787 -1.2135255 1.6 192 192 192
-0.75 -1.2990381 1.6 192 192 192
-0.61010498 -1.3703182 1.6 192 192 192
-0.4635255 -1.4265847 1.6 192 192 192
-0.31186754 -1.4672214 1.6 192 192 192
-0.1567927 -1.4917828 1.6 192 192 192
0 -1.5 1.6 192 192 192
0.1567927 -1.4917828 1.6 192 192 192
0.31186754 -1.4672214 1.6 192 192 192
0.4635255 -1.4265847 1.6 192 192 192
0.61010498 -1.3703182 1.6 192 192 192
0.75 -1.2990381 1.6 192 192 192
0.88167787 -1.2135255 1.6 192 192 192
1.003696 -1.1147172 1.6 192 192 192
1.1147172 -1.003696 1.6 192 192 192
1.2135255 -0.88167787 1.6 192 192 192
1.0375 0 1.6 192 192 192
1.0282429 -0.13828522 1.6 192 192 192
1.0006368 -0.27410272 1.6 192 192 192
0.95517427 -0.40502888 1.6 192 192 192
0.89266664 -0.52872729 1.6 192 192 192
0.81422937 -0.64299053 1.6 192 192 192
0.72126216 -0.74577957 1.6 192 192 192
0.61542398 -0.83526015 1.6 192 192 192
0.49860358 -0.90983558 1.6 192 192 192
0.37288556 -0.96817487 1.6 192 192 192
0.2405134 -1.0092372 1.6 192 192 192
0.10384928 -1.0322895 1.6 192 192 192
-0.03466804 -1.0369207 1.6 192 192 192
-0.17256671 -1.0230479 1.6 192 192 192
-0.30738592 -0.99091882 1.6 192 192 192
-0.43671981 -0.9411068 1.6 192 192 192
-0.55826044 -0.87450075 1.6 192 192 192
-0.66983891 -0.79228914 1.6 192 192 192
-0.76946408 -0.69593918 1.6 192 192 192
-0.85535812 -0.58717012 1.6 192 192 192
-0.92598832 -0.46792299 1.6 192 192 192
-0.98009419 -0.3403258 1.6 192 192 192
-1.0167103 -0.20665546 1.6 192 192 192
-1.0351832 -0.069297358 1.6 192 192 192
-1.0351832 0.069297358 1.6 192 192 192
-1.0167103 0.20665546 1.6 192 192 192
-0.98009419 0.3403258 1.6 192 192 192
-0.92598832 0.46792299 1.6 192 192 192
-0.85535812 0.58717012 1.6 192 192 192
-0.76946408 0.69593918 1.6 192 192 192
-0.66983891 0.79228914 1.6 192 192 192
-0.55826044 0.87450075 1.6 192 192 192
-0.43671981 0.9411068 1.6 192 192 192
-0.30738592 0.99091882 1.6 192 192 192
-0.17256671 1.0230479 1.6 192 192 192
-0.03466804 1.0369207 1.6 192 192 192
0.10384928 1.0322895 1.6 192 192 192
0.2405134 1.0092372 1.6 192 192 192
0.37288556 0.96817487 1.6 192 192 192
0.49860358 0.90983558 1.6 192 192 192
0.61542398 0.83526015 1.6 192 192 192
0.72126216 0.74577957 1.6 192 192 192
0.81422937 0.64299053 1.6 192 192 192
0.89266664 0.52872729 1.6 192 192 192
0.95517427 0.40502888 1.6 192 192 192
1.0006368 0.27410272 1.6 192 192 192
1.0282429 0.13828522 1.6 192 192 192
1.2990381 0.75 0 192 192 192
1.399972 0.57517743 0.0078072618 192 192 192
1.5036731 0.3955619 0.031657133 192 192 192
1.5574889 0.30235013 0.049978092 192 192 192
1.6131673 0.20591234 0.072893925 192 192 192
1.6711777 0.1054353 0.10074785 192 192 192
1.7320508 8.5592289e-017 0.1339746 192 192 192
1.6711777 -0.1054353 0.10074785 192 192 192
1.6131673 -0.20591234 0.072893925 192 192 192
1.5574889 -0.30235013 0.049978092 192 192 192
1.5036731 -0.3955619 0.031657133 192 192 192
1.399972 -0.57517743 0.0078072618 192 192 192
1.2990381 -0.75 0 192 192 192
1.3703182 -0.61010498 0 192 192 192
1.4265847 -0.4635255 0 192 192 192
1.4672214 -0.31186754 0 192 192 192
1.4917828 -0.1567927 0 192 192 192
1.5 9.9920072e-016 0 192 192 192
1.4917828 0.1567927 0 192 192 192
1.4672214 0.31186754 0 192 192 192
1.4265847 0.4635255 0 192 192 192
1.3703182 0.61010498 0 192 192 192
1.2990381 -0.75 0 192 192 192
1.1981043 -0.92482257 0.0078072618 192 192 192
1.0944031 -1.1044381 0.031657133 192 192 192
1.0405873 -1.1976498 0.049978092 192 192 192
0.98490894 -1.2940876 0.072893925 192 192 192
0.92689848 -1.3945647 0.10074785 192 192 192
0.86602539 -1.5 0.1339746 192 192 192
0.74427921 -1.5 0.10074785 192 192 192
0.62825835 -1.5 0.072893925 192 192 192
0.51690155 -1.5 0.049978092 192 192 192
0.40926984 -1.5 0.031657133 192 192 192
0.20186773 -1.5 0.0078072618 192 192 192
0 -1.5 0 192 192 192
0.1567927 -1.4917828 0 192 192 192
0.31186754 -1.4672214 0 192 192 192
0.4635255 -1.4265847 0 192 192 192
0.61010498 -1.3703182 0 192 192 192
0.75 -1.2990381 0 192 192 192
0.88167787 -1.2135255 0 192 192 192
1.003696 -1.1147172 0 192 192 192
1.1147172 -1.003696 0 192 192 192
1.2135255 -0.88167787 0 192 192 192
-0.86602539 -1.5 0.1339746 192 192 192
-0.92689848 -1.3945647 0.10074785 192 192 192
-0.98490894 -1.2940876 0.072893925 192 192 192
-1.0405873 -1.1976498 0.049978092 192 192 192
-1.0944031 -1.1044381 0.031657133 192 192 192
-1.1981043 -0.92482257 0.0078072618 192 192 192
-1.2990381 -0.75 0 192 192 192
-1.2135255 -0.88167787 0 192 192 192
-1.1147172 -1.003696 0 192 192 192
-1.003696 -1.1147172 0 192 192 192
-0.88167787 -1.2135255 0 192 192 192
-0.75 -1.2990381 0 192 192 192
-0.61010498 -1.3703182 0 192 192 192
-0.4635255 -1.4265847 0 192 192 192
-0.31186754 -1.4672214 0 192 192 192
-0.1567927 -1.4917828 0 192 192 192
0 -1.5 0 192 192 192
-0.20186773 -1.5 0.0078072618 192 192 192
-0.40926984 -1.5 0.031657133 192 192 192
-0.51690155 -1.5 0.049978092 192 192 192
-0.62825835 -1.5 0.072893925 192 192 192
-0.74427921 -1.5 0.10074785 192 192 192
-0.86602539 1.5 0.1339746 192 192 192
-0.74427921 1.5 0.10074785 192 192 192
-0.62825835 1.5 0.072893925 192 192 192
-0.51690155 1.5 0.049978092 192 192 192
-0.40926984 1.5 0.031657133 192 192 192
-0.20186773 1.5 0.0078072618 192 192 192
0 1.5 0 192 192 192
-0.1567927 1.4917828 0 192 192 192
-0.31186754 1.4672214 0 192 192 192
-0.4635255 1.4265847 0 192 192 192
-0.61010498 1.3703182 0 192 192 192
-0.75 1.2990381 0 192 192 192
-0.88167787 1.2135255 0 192 192 192
-1.003696 1.1147172 0 192 192 192
-1.1147172 1.003696 0 192 192 192
-1.2135255 0.88167787 0 192 192 192
-1.2990381 0.75 0 192 192 192
-1.1981043 0.92482257 0.0078072618 192 192 192
-1.0944031 1.1044381 0.031657133 192 192 192
-1.0405873 1.1976498 0.049978092 192 192 192
-0.98490894 1.2940876 0.072893925 192 192 192
-0.92689848 1.3945647 0.10074785 192 192 192
0 1.5 0 192 192 192
0.20186773 1.5 0.0078072618 192 192 192
0.40926984 1.5 0.031657133 192 192 192
0.51690155 1.5 0.049978092 192 192 192
0.62825835 1.5 0.072893925 192 192 192
0.74427921 1.5 0.10074785 192 192 192
0.86602539 1.5 0.1339746 192 192 192
0.92689848 1.3945647 0.10074785 192 192 192
0.98490894 1.2940876 0.072893925 192 192 192
1.0405873 1.1976498 0.049978092 192 192 192
1.0944031 1.1044381 0.031657133 192 192 192
1.1981043 0.92482257 0.0078072618 192 192 192
1.2990381 0.75 0 192 192 192
1.2135255 0.88167787 0 192 192 192
1.1147172 1.003696 0 192 192 192
1.003696 1.1147172 0 192 192 192
0.88167787 1.2135255 0 192 192 192
0.75 1.2990381 0 192 192 192
0.61010498 1.3703182 0 192 192 192
0.4635255 1.4265847 0 192 192 192
0.31186754 1.4672214 0 192 192 192
0.1567927 1.4917828 0 192 192 192
0 1.5 0 192 192 192
0.1567927 1.4917828 0 192 192 192
0.31186754 1.4672214 0 192 192 192
0.4635255 1.4265847 0 192 192 192
0.61010498 1.3703182 0 192 192 192
0.75 1.2990381 0 192 192 192
0.88167787 1.2135255 0 192 192 192
1.003696 1.1147172 0 192 192 192
1.1147172 1.003696 0 192 192 192
1.2135255 0.88167787 0 192 192 192
1.2990381 0.75 0 192 192 192
1.3703182 0.61010498 0 192 192 192
1.4265847 0.4635255 0 192 192 192
1.4672214 0.31186754 0 192 192 192
1.4917828 0.1567927 0 192 192 192
1.5 9.9920072e-016 0 192 192 192
1.4917828 -0.1567927 0 192 192 192
1.4672214 -0.31186754 0 192 192 192
1.4265847 -0.4635255 0 192 192 192
1.3703182 -0.61010498 0 192 192 192
1.2990381 -0.75 0 192 192 192
1.2135255 -0.88167787 0 192 192 192
1.1147172 -1.003696 0 192 192 192
1.003696 -1.1147172 0 192 192 192
0.88167787 -1.2135255 0 192 192 192
0.75 -1.2990381 0 192 192 192
0.61010498 -1.3703182 0 192 192 192
0.4635255 -1.4265847 0 192 192 192
0.31186754 -1.4672214 0 192 192 192
0.1567927 -1.4917828 0 192 192 192
0 -1.5 0 192 192 192
-0.1567927 -1.4917828 0 192 192 192
-0.31186754 -1.4672214 0 192 192 192
-0.4635255 -1.4265847 0 192 192 192
-0.61010498 -1.3703182 0 192 192 192
-0.75 -1.2990381 0 192 192 192
-0.88167787 -1.2135255 0 192 192 192
-1.003696 -1.1147172 0 192 192 192
-1.1147172 -1.003696 0 192 192 192
-1.2135255 -0.88167787 0 192 192 192
-1.2990381 -0.75 0 192 192 192
-1.3703182 -0.61010498 0 192 192 192
-1.4265847 -0.4635255 0 192 192 192
-1.4672214 -0.31186754 0 192 192 192
-1.4917828 -0.1567927 0 192 192 192
-1.5 1.8369701e-016 0 192 192 192
-1.4917828 0.1567927 0 192 192 192
-1.4672214 0.31186754 0 192 192 192
-1.4265847 0.4635255 0 192 192 192
-1.3703182 0.61010498 0 192 192 192
-1.2990381 0.75 0 192 192 192
-1.2135255 0.88167787 0 192 192 192
-1.1147172 1.003696 0 192 192 192
-1.003696 1.1147172 0 192 192 192
-0.88167787 1.2135255 0 192 192 192
-0.75 1.2990381 0 192 192 192
-0.61010498 1.3703182 0 192 192 192
-0.4635255 1.4265847 0 192 192 192
-0.31186754 1.4672214 0 192 192 192
-0.1567927 1.4917828 0 192 192 192
-1.0375 0 0 192 192 192
-1.0282429 -0.13828522 0 192 192 192
-1.0006368 -0.27410272 0 192 192 192
-0.95517427 -0.40502888 0 192 192 192
-0.89266664 -0.52872729 0 192 192 192
-0.81422937 -0.64299053 0 192 192 192
-0.72126216 -0.74577957 0 192 192 192
-0.61542398 -0.83526015 0 192 192 192
-0.49860358 -0.90983558 0 192 192 192
-0.37288556 -0.96817487 0 192 192 192
-0.2405134 -1.0092372 0 192 192 192
-0.10384928 -1.0322895 0 192 192 192
0.03466804 -1.0369207 0 192 192 192
0.17256671 -1.0230479 0 192 192 192
0.30738592 -0.99091882 0 192 192 192
0.43671981 -0.9411068 0 192 192 192
0.55826044 -0.87450075 0 192 192 192
0.66983891 -0.79228914 0 192 192 192
0.76946408 -0.69593918 0 192 192 192
0.85535812 -0.58717012 0 192 192 192
0.92598832 -0.46792299 0 192 192 192
0.98009419 -0.3403258 0 192 192 192
1.0167103 -0.20665546 0 192 192 192
1.0351832 -0.069297358 0 192 192 192
1.0351832 0.069297358 0 192 192 192
1.0167103 0.20665546 0 192 192 192
0.98009419 0.3403258 0 192 192 192
0.92598832 0.46792299 0 192 192 192
0.85535812 0.58717012 0 192 192 192
0.76946408 0.69593918 0 192 192 192
0.66983891 0.79228914 0 192 192 192
0.55826044 0.87450075 0 192 192 192
0.43671981 0.9411068 0 192 192 192
0.30738592 0.99091882 0 192 192 192
0.17256671 1.0230479 0 192 192 192
0.03466804 1.0369207 0 192 192 192
-0.10384928 1.0322895 0 192 192 192
-0.2405134 1.0092372 0 192 192 192
-0.37288556 0.96817487 0 192 192 192
-0.49860358 0.90983558 0 192 192 192
-0.61542398 0.83526015 0 192 192 192
-0.72126216 0.74577957 0 192 192 192
-0.81422937 0.64299053 0 192 192 192
-0.89266664 0.52872729 0 192 192 192
-0.95517427 0.40502888 0 192 192 192
-1.0006368 0.27410272 0 192 192 192
-1.0282429 0.13828522 0 192 192 192
0.14090331 0.98992592 1.5624036 192 192 192
0.21875046 0.96692884 1.553884 192 192 192
0.30316919 0.93388951 1.5443861 192 192 192
0.36593342 0.90313232 1.5369573 192 192 192
0.42992121 0.86552674 1.5289205 192 192 192
0.49225917 0.82186967 1.520512 192 192 192
0.55078149 0.77341056 1.5119847 192 192 192
0.60521317 0.72039318 1.5033761 192 192 192
0.65527654 0.66306436 1.494724 192 192 192
0.70058447 0.60183442 1.4860926 192 192 192
0.73924732 0.53986537 1.47787 192 192 192
0.77443856 0.47149974 1.4691687 192 192 192
0.80095571 0.40736908 1.4610984 192 192 192
0.8219952 0.34246415 1.4529805 192 192 192
0.83790785 0.27618 1.4447486 192 192 192
0.84862196 0.20881522 1.4364351 192 192 192
0.85406399 0.14071286 1.4280779 192 192 192
0.85418057 0.07240355 1.4197437 192 192 192
0.84895277 0.0042086923 1.4114615 192 192 192
0.83288169 -0.087831326 1.4 192 192 192
0.81456834 -0.19463964 1.3948164 192 192 192
0.78263748 -0.29813555 1.3895853 192 192 192
0.73756641 -0.3967393 1.3844074 192 192 192
0.68021321 -0.48858595 1.379335 192 192 192
0.63969338 -0.54055399 1.3762549 192 192 192
0.5952825 -0.58910507 1.3731378 192 192 192
0.54729265 -0.63393724 1.3699878 192 192 192
0.49595866 -0.67485613 1.3668195 192 192 192
0.44151524 -0.71166736 1.3636477 192 192 192
0.38421234 -0.74416876 1.3604888 192 192 192
0.32461149 -0.77203208 1.3573806 192 192 192
0.26312152 -0.79509312 1.3543091 192 192 192
0.20001714 -0.81326455 1.3512409 192 192 192
0.13560407 -0.82644892 1.3481441 192 192 192
0.070203148 -0.83455241 1.3449904 192 192 192
0.0044783717 -0.83748782 1.3418151 192 192 192
-0.061157793 -0.83526361 1.3386456 192 192 192
-0.12640154 -0.82790607 1.3354963 192 192 192
-0.19094907 -0.81544137 1.3323821 192 192 192
-0.25447443 -0.79790288 1.3293129 192 192 192
-0.31634185 -0.77545714 1.3262318 192 192 192
-0.37615371 -0.74827403 1.32312 192 192 192
-0.43363878 -0.71649367 1.3199812 192 192 192
-0.48852584 -0.68025637 1.3168191 192 192 192
-0.54051608 -0.63972545 1.3136437 192 192 192
-0.58907562 -0.59531164 1.310515 192 192 192
-0.63392633 -0.54730541 1.3074262 192 192 192
-0.67487061 -0.49593917 1.3043509 192 192 192
-0.71169084 -0.44147751 1.3012645 192 192 192
-0.74419308 -0.3841652 1.2981411 192 192 192
-0.77204013 -0.3245919 1.294987 192 192 192
-0.79509372 -0.26311889 1.2918183 192 192 192
-0.81325978 -0.20003605 1.28865 192 192 192
-0.82644409 -0.13563314 1.2854968 192 192 192
-0.83454883 -0.070246153 1.2823738 192 192 192
-0.83748752 -0.0045472849 1.2792852 192 192 192
-0.83526653 0.061119698 1.2762072 192 192 192
-0.82790524 0.12640768 1.2731173 192 192 192
-0.81542659 0.19101229 1.2699907 192 192 192
-0.79787445 0.25456354 1.266817 192 192 192
-0.77543175 0.31640387 1.2636594 192 192 192
-0.74824923 0.37620288 1.260527 192 192 192
-0.71646404 0.43368778 1.2574182 192 192 192
-0.68021333 0.48858577 1.2543308 192 192 192
-0.63969105 0.54055673 1.2512548 192 192 192
-0.59530532 0.58908188 1.2481394 192 192 192
-0.54732317 0.63391089 1.2449898 192 192 192
-0.49597493 0.67484426 1.2418205 192 192 192
-0.44149119 0.71168232 1.2386464 192 192 192
-0.38417035 0.74419045 1.2354904 192 192 192
-0.32460284 0.77203566 1.2323911 192 192 192
-0.26312092 0.7950933 1.2293226 192 192 192
-0.20001261 0.81326568 1.2262523 192 192 192
-0.1355668 0.826455 1.2231474 192 192 192
-0.070172109 0.83455503 1.2199888 192 192 192
-0.0044978238 0.83748764 1.2168161 192 192 192
0.061116785 0.83526665 1.2136476 192 192 192
0.12636749 0.82791132 1.210498 192 192 192
0.19095008 0.81544119 1.207382 192 192 192
0.25447395 0.797903 1.2043023 192 192 192
0.31630814 0.77547079 1.2012142 192 192 192
0.37611526 0.74829334 1.198108 192 192 192
0.43362087 0.71650463 1.1949781 192 192 192
0.48855054 0.6802386 1.191819 192 192 192
0.54054028 0.63970494 1.1886482 192 192 192
0.58906955 0.59531754 1.1855252 192 192 192
0.63391399 0.54731959 1.1824337 192 192 192
0.67487067 0.49593911 1.1793523 192 192 192
0.71171474 0.44143897 1.1762614 192 192 192
0.7442103 0.38413179 1.1731393 192 192 192
0.77203906 0.32459432 1.1699871 192 192 192
0.79508948 0.26313177 1.166819 192 192 192
0.81326091 0.20003177 1.1636498 192 192 192
0.82645255 0.13558193 1.1604943 192 192 192
0.83455241 0.070203632 1.1573722 192 192 192
0.83748752 0.0045470758 1.1542896 192 192 192
0.83526766 -0.061104715 1.1512171 192 192 192
0.82790542 -0.12640716 1.1481278 192 192 192
0.81541646 -0.1910556 1.1449929 192 192 192
0.79786867 -0.25458136 1.1418165 192 192 192
0.77544224 -0.31637788 1.1386533 192 192 192
0.74827021 -0.37616116 1.1355118 192 192 192
0.71648365 -0.43365556 1.1323987 192 192 192
0.68021357 -0.48858544 1.1293215 192 192 192
0.63969618 -0.54055059 1.1262552 192 192 192
0.59533095 -0.5890559 1.1231412 192 192 192
0.54735106 -0.63388687 1.1199915 192 192 192
0.49598253 -0.67483878 1.1168209 192 192 192
0.44145155 -0.71170694 1.1136441 192 192 192
0.38414231 -0.74420488 1.1104963 192 192 192
0.32460126 -0.77203631 1.1074036 192 192 192
0.26312035 -0.79509348 1.1043354 192 192 192
0.19999824 -0.81326926 1.1012604 192 192 192
0.13550937 -0.82646441 1.0981466 192 192 192
0.070150048 -0.83455682 1.0949878 192 192 192
0.0045153699 -0.83748752 1.0918169 192 192 192
-0.061087996 -0.8352688 1.0886489 192 192 192
-0.12635554 -0.82791322 1.0854986 192 192 192
-0.19098276 -0.8154335 1.0823804 192 192 192
-0.25447348 -0.79790312 1.0792923 192 192 192
-0.31627947 -0.77548248 1.0762047 192 192 192
-0.37608615 -0.74830806 1.0731055 192 192 192
-0.43361613 -0.71650761 1.0699811 192 192 192
-0.48859203 -0.68020886 1.066818 192 192 192
-0.54055077 -0.639696 1.0636543 192 192 192
-0.5890556 -0.59533113 1.0605317 192 192 192
-0.63389826 -0.54733777 1.0574349 192 192 192
-0.67487061 -0.49593928 1.0543481 192 192 192
-0.71174359 -0.44139248 1.0512576 192 192 192
-0.74421805 -0.38411656 1.0481385 192 192 192
-0.77203453 -0.32460505 1.0449876 192 192 192
-0.79508573 -0.26314324 1.0418196 192 192 192
-0.81326473 -0.20001648 1.0386491 192 192 192
-0.8264643 -0.13551018 1.0354909 192 192 192
-0.83455497 -0.070172787 1.032375 192 192 192
-0.83748752 -0.00454664 1.0292989 192 192 192
-0.83526891 0.061088946 1.02623 192 192 192
-0.82790589 0.12640424 1.023138 192 192 192
-0.81540799 0.19109167 1.019992 192 192 192
-0.79787689 0.25455552 1.0168144 192 192 192
-0.77546769 0.3163155 1.0136435 192 192 192
-0.74830461 0.376093 1.0104941 192 192 192
-0.71651173 0.43360937 1.0073808 192 192 192
-0.68021369 0.48858532 1.0043182 192 192 192
-0.63972658 0.54051447 1.0012519 192 192 192
-0.59538251 0.58900368 0.99813873 192 192 192
-0.54740238 0.63384253 0.994991 192 192 192
-0.49600741 0.67482054 0.99182135 192 192 192
-0.44142175 0.71172541 0.98864275 192 192 192
-0.38414291 0.74420452 0.98550594 192 192 192
-0.32461423 0.77203077 0.98241657 192 192 192
-0.26311991 0.79509366 0.97934538 192 192 192
-0.19997455 0.8132751 0.97626442 192 192 192
-0.13544153 0.82647556 0.9731434 192 192 192
-0.070136689 0.83455789 0.96998715 192 192 192
-0.0045308997 0.8374874 0.96681768 192 192 192
0.061071161 0.83527005 0.96364975 192 192 192
0.12636483 0.82791185 0.96049809 192 192 192
0.19103804 0.81542057 0.9573772 192 192 192
0.25447321 0.79790318 0.95428622 192 192 192
0.31625623 0.77549195 0.95120311 192 192 192
0.3760668 0.7483179 0.94810981 192 192 192
0.43362477 0.71650243 0.9449864 192 192 192
0.4886356 0.68017757 0.94181657 192 192 192
0.54054946 0.63969696 0.93865877 192 192 192
0.58903521 0.59535122 0.93553251 192 192 192
0.63387984 0.54735917 0.93242913 192 192 192
0.67487037 0.49593964 0.92933977 192 192 192
0.71176696 0.44135478 0.92625552 192 192 192
0.74421722 0.38411817 0.92313862 192 192 192
0.77202678 0.32462338 0.91998857 192 192 192
0.79508245 0.26315349 0.91682005 192 192 192
0.81327093 0.19999145 0.91364783 192 192 192
0.82647532 0.13544303 0.91048896 192 192 192
0.83455658 0.070152946 0.90738201 192 192 192
0.83748752 0.0045460756 0.904311 192 192 192
0.83526921 -0.061085004 0.90124261 192 192 192
0.82790297 -0.12642375 0.89814478 192 192 192
0.81539935 -0.19112866 0.89499009 192 192 192
0.79788303 -0.254536 0.8918153 192 192 192
0.77548665 -0.31626898 0.88864589 192 192 192
0.74832809 -0.37604636 0.88549662 192 192 192
0.71652532 -0.43358698 0.88238209 192 192 192
0.68021387 -0.48858505 0.87931156 192 192 192
0.63975215 -0.54048413 0.87622881 192 192 192
0.5954178 -0.58896792 0.87311763 192 192 192
0.54742724 -0.63382113 0.86998022 192 192 192
0.49599692 -0.67482829 0.8668189 192 192 192
0.44138148 -0.71175039 0.86364412 192 192 192
0.38414106 -0.74420542 0.86051667 192 192 192
0.32462654 -0.77202553 0.85742766 192 192 192
0.26311964 -0.79509372 0.85435146 192 192 192
0.19993973 -0.81328368 0.85126418 192 192 192
0.13538785 -0.82648432 0.84814084 192 192 192
0.070131525 -0.83455825 0.84498692 192 192 192
0.0045455312 -0.83748728 0.84181839 192 192 192
-0.061065402 -0.83527052 0.83865005 192 192 192
-0.12639657 -0.82790709 0.83549654 192 192 192
-0.19108844 -0.81540877 0.83237338 192 192 192
-0.25447315 -0.79790312 0.8292855 192 192 192
-0.31623745 -0.77549964 0.82620841 192 192 192
-0.37605685 -0.74832296 0.82311881 192 192 192
-0.43364868 -0.716488 0.81999129 192 192 192
-0.48866427 -0.68015695 0.8168171 192 192 192
-0.54053706 -0.63970733 0.81365895 192 192 192
-0.58900744 -0.59537864 0.81052536 192 192 192
-0.63385773 -0.54738486 0.80741566 192 192 192
-0.67487013 -0.49594006 0.80432922 192 192 192
-0.71177572 -0.4413406 0.80125475 192 192 192
-0.74420768 -0.38413644 0.79813957 192 192 192
-0.77201539 -0.32465047 0.79498994 192 192 192
-0.79507929 -0.26316321 0.79182053 192 192 192
-0.81327987 -0.19995517 0.78864604 192 192 192
-0.82648331 -0.13539441 0.78549111 192 192 192
-0.83455741 -0.070142627 0.7823928 192 192 192
-0.83748752 -0.0045454423 0.77932459 192 192 192
-0.83526886 0.061091155 0.77625376 192 192 192
-0.82789677 0.12646413 0.77314752 192 192 192
-0.81539249 0.19115773 0.76998866 192 192 192
-0.79788882 0.25451767 0.7668162 192 192 192
-0.77550155 0.31623247 0.76364779 192 192 192
-0.74834222 0.37601849 0.76049811 192 192 192
-0.71652234 0.43359199 0.75738186 192 192 192
-0.68021411 0.48858464 0.75430071 192 192 192
-0.63977671 0.54045498 0.75121236 192 192 192
-0.59545052 0.5889349 0.74810725 192 192 192
-0.54744703 0.63380414 0.74497855 192 192 192
-0.49597785 0.67484236 0.7418195 192 192 192
-0.44136652 0.71175963 0.73864955 192 192 192
-0.3841593 0.74419588 0.73552626 192 192 192
-0.32465073 0.77201533 0.73243344 192 192 192
-0.2631197 0.79509377 0.72935081 192 192 192
-0.199881 0.81329811 0.72625983 192 192 192
-0.13534561 0.82649124 0.72313875 192 192 192
-0.070134155 0.83455795 0.71998703 192 192 192
-0.0045598457 0.83748722 0.71681911 192 192 192
0.061072726 0.83527011 0.71364969 192 192 192
0.12645896 0.82789755 0.71049356 192 192 192
0.19113302 0.81539828 0.70737231 192 192 192
0.25447339 0.79790306 0.70429105 192 192 192
0.31621492 0.77550888 0.70121962 192 192 192
0.37604135 0.74833083 0.69813043 192 192 192
0.43366748 0.71647662 0.69499409 192 192 192
0.48865265 0.68016523 0.69181573 192 192 192
0.54049098 0.63974619 0.68864655 192 192 192
0.5889554 0.59543025 0.68549937 192 192 192
0.63382274 0.54742563 0.6823861 192 192 192
0.67486984 0.49594045 0.67931879 192 192 192
0.7117635 0.44136018 0.67625582 192 192 192
0.74417919 0.38419136 0.67314255 192 192 192
0.77198929 0.32471246 0.66999322 192 192 192
0.79506689 0.26320079 0.66682249 192 192 192
0.81328511 0.19993381 0.66364497 192 192 192
0.82648492 0.13538444 0.66049838 192 192 192
0.83455658 0.070152059 0.65740621 192 192 192
0.83748752 0.0045448435 0.65433741 192 192 192
0.8352676 -0.061108172 0.65126157 192 192 192
0.82788718 -0.12652715 0.64814609 192 192 192
0.81538826 -0.19117552 0.64498782 192 192 192
0.79789525 -0.25449732 0.64181727 192 192 192
0.77551246 -0.31620592 0.63864917 192 192 192
0.74834406 -0.37601495 0.63549829 192 192 192
0.71649444 -0.43363801 0.63237929 192 192 192
0.68021441 -0.48858416 0.62928903 192 192 192
0.63980168 -0.5404253 0.62620205 192 192 192
0.59548265 -0.58890247 0.62310487 192 192 192
0.54746318 -0.63379031 0.6199823 192 192 192
0.49594936 -0.67486328 0.61681896 192 192 192
0.44136861 -0.71175826 0.61365557 192 192 192
0.38418603 -0.74418199 0.61053133 192 192 192
0.32467777 -0.77200395 0.60743243 192 192 192
0.26311997 -0.79509372 0.6043449 192 192 192
0.19982548 -0.81331176 0.60125655 192 192 192
0.13533533 -0.82649285 0.59813827 192 192 192
0.070150495 -0.83455652 0.59498781 192 192 192
0.0045753457 -0.83748716 0.59181982 192 192 192
-0.061085746 -0.83526921 0.58864909 192 192 192
-0.12652682 -0.82788718 0.58549035 192 192 192
-0.19115728 -0.81539261 0.58237606 192 192 192
-0.25447384 -0.79790288 0.57930088 192 192 192
-0.31620157 -0.77551436 0.57623261 192 192 192
-0.37604025 -0.74833143 0.5731402 192 192 192
-0.43369773 -0.71645832 0.56999284 192 192 192
-0.48862806 -0.68018281 0.56681585 192 192 192
-0.54043919 -0.63979 0.56364524 192 192 192
-0.58890295 -0.59548223 0.56049562 192 192 192
-0.63379133 -0.54746211 0.55738163 192 192 192
-0.67486978 -0.49594057 0.55431569 192 192 192
-0.71173489 -0.44140616 0.55123907 192 192 192
-0.74414384 -0.38425964 0.54812604 192 192 192
-0.77196282 -0.32477546 0.54498404 192 192 192
-0.79505801 -0.26322788 0.54182047 192 192 192
-0.81329387 -0.19989835 0.5386439 192 192 192
-0.82648438 -0.13538717 0.53550851 192 192 192
-0.83455521 -0.070167691 0.53241915 192 192 192
-0.83748752 -0.0045443997 0.52934688 192 192 192
-0.8352654 0.061138507 0.52626455 192 192 192
-0.82787603 0.12659968 0.52314258 192 192 192
-0.81538451 0.19119132 0.51998699 192 192 192
-0.79789883 0.25448588 0.51681781 192 192 192
-0.77551705 0.31619477 0.51364976 192 192 192
-0.74833685 0.37602943 0.51049751 192 192 192
-0.71646595 0.43368512 0.5073756 192 192 192
-0.68021446 0.48858395 0.50428462 192 192 192
-0.63981736 0.54040676 0.50120294 192 192 192
-0.59549671 0.58888841 0.49811125 192 192 192
-0.54745334 0.6337989 0.49498826 192 192 192
-0.49590749 0.67489409 0.4918178 192 192 192
-0.44137269 0.71175563 0.48865873 192 192 192
-0.38421452 0.74416721 0.48552921 192 192 192
-0.32470605 0.77199209 0.48242331 192 192 192
-0.26312041 0.7950936 0.47933501 192 192 192
-0.19979151 0.8133201 0.47625488 192 192 192
-0.13534626 0.82649094 0.47313881 192 192 192
-0.070178688 0.83455414 0.46998918 192 192 192
-0.0045927898 0.83748716 0.46682069 192 192 192
0.061107416 0.83526766 0.46364802 192 192 192
0.12658519 0.8278783 0.46048936 192 192 192
0.19117212 0.8153891 0.45738408 192 192 192
0.2544744 0.7979027 0.45431361 192 192 192
0.31620276 0.77551395 0.45124522 192 192 192
0.37606761 0.74831772 0.44814613 192 192 192
0.43373802 0.71643388 0.44499058 192 192 192
0.48862043 0.68018824 0.44181633 192 192 192
0.5404107 0.63981396 0.43864703 192 192 192
0.58887649 0.59550852 0.43549737 192 192 192
0.63378525 0.54746914 0.43238205 192 192 192
0.67486948 0.49594089 0.42930657 192 192 192
0.71171486 0.44143829 0.42621946 192 192 192
0.74412221 0.38430145 0.42311031 192 192 192
0.77195179 0.32480186 0.41997761 192 192 192
0.79506367 0.26321092 0.41681978 192 192 192
0.81330466 0.19985431 0.41364592 192 192 192
0.82648432 0.13538711 0.41051906 192 192 192
0.8345539 0.070182361 0.40742922 192 192 192
0.83748752 0.0045441785 0.40435153 192 192 192
0.83526236 -0.061180543 0.40126315 192 192 192
0.82786804 -0.126652 0.39814004 192 192 192
0.81538326 -0.19119613 0.39498678 192 192 192
0.79790294 -0.25447303 0.39181849 192 192 192
0.77551824 -0.31619197 0.38864991 192 192 192
0.7483204 -0.37606218 0.38549578 192 192 192
0.71644223 -0.43372431 0.38237244 192 192 192
0.68021441 -0.48858398 0.37928572 192 192 192
0.6398297 -0.54039222 0.37621012 192 192 192
0.59550309 -0.58888203 0.37312126 192 192 192
0.54743004 -0.63381904 0.369993 192 192 192
0.49588218 -0.67491263 0.36681783 192 192 192
0.44138992 -0.71174484 0.36365598 192 192 192
0.38425237 -0.74414766 0.36051759 192 192 192
0.32473943 -0.77197814 0.35740593 192 192 192
0.26312092 -0.79509348 0.35432428 192 192 192
0.19978905 -0.8133207 0.35125476 192 192 192
0.13537927 -0.82648546 0.34814039 192 192 192
0.070219129 -0.83455068 0.34499112 192 192 192
0.004612173 -0.8374871 0.34182161 192 192 192
-0.061138082 -0.83526546 0.33864653 192 192 192
-0.12662348 -0.8278724 0.33549258 192 192 192
-0.19117711 -0.81538785 0.33239543 192 192 192
-0.254475 -0.79790252 0.32932714 192 192 192
-0.31621328 -0.77550972 0.32625571 192 192 192
-0.37611344 -0.74829471 0.32314783 192 192 192
-0.43376899 -0.71641511 0.31998885 192 192 192
-0.48861203 -0.68019414 0.31681681 192 192 192
-0.540389 -0.63983232 0.31364837 192 192 192
-0.58886325 -0.59552169 0.31049827 192 192 192
-0.63379806 -0.5474543 0.30738112 192 192 192
-0.67486918 -0.49594128 0.30429605 192 192 192
-0.71169722 -0.44146663 0.3012068 192 192 192
-0.7441048 -0.38433525 0.29810405 192 192 192
-0.77194613 -0.32481548 0.29497838 192 192 192
-0.79507536 -0.26317558 0.29182023 192 192 192
-0.81331086 -0.19982903 0.28865099 192 192 192
-0.82648224 -0.13539927 0.28552771 192 192 192
-0.83455217 -0.070203155 0.2824339 192 192 192
-0.83748758 -0.0045442381 0.27935022 192 192 192
-0.83525848 0.061233126 0.27625921 192 192 192
-0.82786351 0.1266814 0.27313864 192 192 192
-0.81538481 0.19118933 0.26998711 192 192 192
-0.79790741 0.25445899 0.26681921 192 192 192
-0.77551603 0.3161976 0.26364964 192 192 192
-0.74829519 0.37611243 0.2604931 192 192 192
-0.71642423 0.433754 0.25737262 192 192 192
-0.68021423 0.48858422 0.25429228 192 192 192
-0.63983792 0.54038256 0.25122148 192 192 192
-0.59550089 0.58888441 0.24813192 192 192 192
-0.54739285 0.63385117 0.24499394 192 192 192
-0.49587324 0.67491913 0.24181497 192 192 192
-0.4414188 0.7117269 0.23864418 192 192 192
-0.38429767 0.74412429 0.23549546 192 192 192
-0.32477629 0.7719627 0.23238237 192 192 192
-0.26312116 0.79509342 0.22931847 192 192 192
-0.19982998 0.81331056 0.22625674 192 192 192
-0.13544109 0.82647538 0.22314338 192 192 192
-0.070257105 0.8345477 0.21999297 192 192 192
-0.004580453 0.83748746 0.21682009 192 192 192
0.061268877 0.83525586 0.21364197 192 192 192
0.12665617 0.82786733 0.210511 192 192 192
0.19115734 0.81539243 0.20742223 192 192 192
0.25447598 0.79790229 0.20434825 192 192 192
0.34090716 0.7649762 0.2 192 192 192
0.44050482 0.71612066 0.19674242 192 192 192
0.53270197 0.65468639 0.19347063 192 192 192
0.61584729 0.58187407 0.19024611 192 192 192
0.68541056 0.50313324 0.18725315 192 192 192
0.72734159 0.44425833 0.18521388 192 192 192
0.76252973 0.38507459 0.18325521 192 192 192
0.7919603 0.32531086 0.18132928 192 192 192
0.81664068 0.26350701 0.17939867 192 192 192
0.83646089 0.19994405 0.17747423 192 192 192
0.85124171 0.1352174 0.17558588 192 192 192
0.86095458 0.069707587 0.17372747 192 192 192
0.8656078 0.0037109831 0.17188323 192 192 192
0.86509609 -0.06496232 0.16996782 192 192 192
0.8591575 -0.13349043 0.16803393 192 192 192
0.84786326 -0.20122842 0.16608447 192 192 192
0.83131284 -0.26775444 0.16413085 192 192 192
0.80959862 -0.33276334 0.16218206 192 192 192
0.78281307 -0.39594999 0.16024707 192 192 192
0.75106728 -0.45697084 0.15833782 192 192 192
0.71467495 -0.51521748 0.15646945 192 192 192
0.67296529 -0.5715723 0.15456328 192 192 192
0.62701321 -0.62437886 0.15263025 192 192 192
0.57705683 -0.67339373 0.15067776 192 192 192
0.52343673 -0.71829343 0.14871912 192 192 192
0.46641886 -0.7588563 0.14676462 192 192 192
0.40651974 -0.7947157 0.14484447 192 192 192
0.34416428 -0.82568246 0.1429573 192 192 192
0.2796663 -0.85166776 0.14108615 192 192 192
0.21184364 -0.87299049 0.13917223 192 192 192
0.14245224 -0.88891858 0.13723953 192 192 192
0.072114289 -0.89932346 0.13528983 192 192 192
0.0013117428 -0.90416276 0.13333619 192 192 192
-0.069625482 -0.90343338 0.13138756 192 192 192
-0.14036748 -0.8971324 0.12945288 192 192 192
-0.21056147 -0.88525969 0.12754267 192 192 192
-0.27953929 -0.86791682 0.12567239 192 192 192
-0.34829661 -0.84474623 0.12376735 192 192 192
-0.41487905 -0.81628269 0.12183518 192 192 192
-0.47900125 -0.78267395 0.11988312 192 192 192
-0.54023397 -0.74415433 0.11792487 192 192 192
-0.59827501 -0.70091659 0.11597023 192 192 192
-0.65262949 -0.65332609 0.11404735 192 192 192
-0.70293844 -0.60176599 0.11215913 192 192 192
-0.74901456 -0.54652268 0.1102882 192 192 192
-0.79148281 -0.48663792 0.10837843 192 192 192
-0.82914728 -0.42351943 0.1064501 192 192 192
-0.86173671 -0.35762754 0.10450076 192 192 192
-0.88903975 -0.28939751 0.1025441 192 192 192
-0.91090912 -0.21918941 0.10059051 192 192 192
-0.92718178 -0.14752936 0.098654464 192 192 192
-0.93777817 -0.074775204 0.09674532 192 192 192
-0.9426204 -0.001431161 0.094873205 192 192 192
-0.94165677 0.07361301 0.092968635 192 192 192
-0.93479908 0.14812244 0.091038391 192 192 192
-0.92214227 0.22165611 0.08909186 192 192 192
-0.90378112 0.2938768 0.087139972 192 192 192
-0.87981021 0.36445156 0.085191734 192 192 192
-0.85032415 0.4330475 0.083256155 192 192 192
-0.81547809 0.49921972 0.081343979 192 192 192
-0.7756303 0.56232262 0.079457998 192 192 192
-0.72981477 0.62358594 0.077534251 192 192 192
-0.67930621 0.68099558 0.075606555 192 192 192
-0.62439167 0.73425043 0.073658518 192 192 192
-0.56541467 0.78300774 0.071686924 192 192 192
-0.50280273 0.82691419 0.069720216 192 192 192
-0.43693513 0.86571556 0.067771204 192 192 192
-0.36947376 0.89863217 0.065885335 192 192 192
-0.30130479 0.92563879 0.064064451 192 192 192
-0.2242015 0.94931293 0.062071718 192 192 192
-0.14732641 0.96621215 0.060118776 192 192 192
-0.071197405 0.97672552 0.058182985 192 192 192
0.0048672981 0.98123825 0.056249622 192 192 192
0.080913737 0.97984028 0.054324314 192 192 192
0.15659781 0.9725576 0.052415513 192 192 192
0.23157538 0.95941615 0.050531659 192 192 192
0.30550244 0.94044274 0.048679966 192 192 192
0.4110426 0.90233481 0.045953672 192 192 192
0.51146001 0.85269594 0.043175228 192 192 192
0.60554224 0.79219031 0.040380631 192 192 192
0.69239104 0.72138876 0.037596464 192 192 192
0.60654324 0.79492915 0.042154934 192 192 192
0.51281607 0.8583861 0.046731375 192 192 192
0.41304094 0.9106065 0.051238433 192 192 192
0.30923989 0.95088261 0.055593099 192 192 192
0.23450667 0.97201526 0.058616642 192 192 192
0.15764455 0.98739821 0.061726246 192 192 192
0.079325512 0.99675202 0.064894721 192 192 192
0.00026572225 0.9999035 0.068093099 192 192 192
-0.078795731 0.99679404 0.071291476 192 192 192
-0.15711974 0.98748189 0.074459955 192 192 192
-0.23399001 0.97213978 0.077569559 192 192 192
-0.30873445 0.95104682 0.080593102 192 192 192
-0.38161638 0.92421645 0.083616644 192 192 192
-0.45284098 0.89148307 0.086726241 192 192 192
-0.52170044 0.85301566 0.089894719 192 192 192
-0.58751357 0.80909508 0.093093097 192 192 192
-0.64964789 0.76010835 0.096291475 192 192 192
-0.7075398 0.70653695 0.099459954 192 192 192
-0.76071131 0.64894176 0.10256956 192 192 192
-0.80878276 0.58794349 0.1055931 192 192 192
-0.8519749 0.52339834 0.10861664 192 192 192
-0.89035666 0.45505172 0.11172625 192 192 192
-0.92345452 0.38345635 0.11489473 192 192 192
-0.95088261 0.30923989 0.1180931 192 192 192
-0.97235668 0.23308709 0.12129148 192 192 192
-0.98770374 0.15571894 0.12445996 192 192 192
-0.99686676 0.077869996 0.12756956 192 192 192
-0.9999035 0.00026572225 0.13059311 192 192 192
-0.99690801 -0.077340148 0.13361664 192 192 192
-0.98778635 -0.15519395 0.13672625 192 192 192
-0.97248042 -0.23257026 0.13989472 192 192 192
-0.95104682 -0.30873445 0.14309309 192 192 192
-0.92365825 -0.38296548 0.14629148 192 192 192
-0.89059842 -0.45457843 0.14945996 192 192 192
-0.85225296 -0.5229454 0.15256956 192 192 192
-0.80909508 -0.58751357 0.1555931 192 192 192
-0.76105613 -0.64853734 0.15861665 192 192 192
-0.70791525 -0.70616078 0.16172625 192 192 192
-0.65005183 -0.75976294 0.16489471 192 192 192
-0.58794349 -0.80878276 0.1680931 192 192 192
-0.52215374 -0.85273826 0.17129149 192 192 192
-0.45331475 -0.89124227 0.17445995 192 192 192
-0.38210753 -0.9240135 0.17756955 192 192 192
-0.30923989 -0.95088261 0.1805931 192 192 192
-0.23450667 -0.97201526 0.18361664 192 192 192
-0.15764455 -0.98739821 0.18672624 192 192 192
-0.079325512 -0.99675202 0.18989472 192 192 192
-0.00026572225 -0.9999035 0.19309311 192 192 192
0.078795731 -0.99679404 0.19629148 192 192 192
0.15711974 -0.98748189 0.19945996 192 192 192
0.23399001 -0.97213978 0.20256956 192 192 192
0.30873445 -0.95104682 0.20559309 192 192 192
0.38161638 -0.92421645 0.20861664 192 192 192
0.45284098 -0.89148307 0.21172625 192 192 192
0.52170044 -0.85301566 0.21489473 192 192 192
0.58751357 -0.80909508 0.2180931 192 192 192
0.64964789 -0.76010835 0.22129148 192 192 192
0.7075398 -0.70653695 0.22445996 192 192 192
0.76071131 -0.64894176 0.22756957 192 192 192
0.80878276 -0.58794349 0.2305931 192 192 192
0.8519749 -0.52339834 0.23361664 192 192 192
0.89035666 -0.45505172 0.23672624 192 192 192
0.92345452 -0.38345635 0.23989472 192 192 192
0.95088261 -0.30923989 0.2430931 192 192 192
0.97235668 -0.23308709 0.24629147 192 192 192
0.98770374 -0.15571894 0.24945995 192 192 192
0.99686676 -0.077869996 0.25256956 192 192 192
0.9999035 -0.00026572225 0.25559309 192 192 192
0.99690801 0.077340148 0.25861666 192 192 192
0.98778635 0.15519395 0.26172623 192 192 192
0.97248042 0.23257026 0.26489472 192 192 192
0.95104682 0.30873445 0.26809311 192 192 192
0.92365825 0.38296548 0.27129146 192 192 192
0.89059842 0.45457843 0.27445996 192 192 192
0.85225296 0.5229454 0.27756956 192 192 192
0.80909508 0.58751357 0.2805931 192 192 192
0.76105613 0.64853734 0.28361663 192 192 192
0.70791525 0.70616078 0.28672624 192 192 192
0.65005183 0.75976294 0.28989473 192 192 192
0.58794349 0.80878276 0.29309312 192 192 192
0.52215374 0.85273826 0.29629147 192 192 192
0.45331475 0.89124227 0.29945996 192 192 192
0.38210753 0.9240135 0.30256957 192 192 192
0.30923989 0.95088261 0.3055931 192 192 192
0.23450667 0.97201526 0.30861664 192 192 192
0.15764455 0.98739821 0.31172624 192 192 192
0.079325512 0.99675202 0.31489474 192 192 192
0.00026572225 0.9999035 0.31809309 192 192 192
-0.078795731 0.99679404 0.32129148 192 192 192
-0.15711974 0.98748189 0.32445997 192 192 192
-0.23399001 0.97213978 0.32756954 192 192 192
-0.30873445 0.95104682 0.33059311 192 192 192
-0.38161638 0.92421645 0.33361664 192 192 192
-0.45284098 0.89148307 0.33672625 192 192 192
-0.52170044 0.85301566 0.33989471 192 192 192
-0.58751357 0.80909508 0.3430931 192 192 192
-0.64964789 0.76010835 0.34629148 192 192 192
-0.7075398 0.70653695 0.34945995 192 192 192
-0.76071131 0.64894176 0.35256955 192 192 192
-0.80878276 0.58794349 0.35559312 192 192 192
-0.8519749 0.52339834 0.35861665 192 192 192
-0.89035666 0.45505172 0.36172625 192 192 192
-0.92345452 0.38345635 0.36489472 192 192 192
-0.95088261 0.30923989 0.3680931 192 192 192
-0.97235668 0.23308709 0.37129149 192 192 192
-0.98770374 0.15571894 0.37445995 192 192 192
-0.99686676 0.077869996 0.37756956 192 192 192
-0.9999035 0.00026572225 0.38059309 192 192 192
-0.99690801 -0.077340148 0.38361666 192 192 192
-0.98778635 -0.15519395 0.38672623 192 192 192
-0.97248042 -0.23257026 0.38989472 192 192 192
-0.95104682 -0.30873445 0.39309311 192 192 192
-0.92365825 -0.38296548 0.39629146 192 192 192
-0.89059842 -0.45457843 0.39945996 192 192 192
-0.85225296 -0.5229454 0.40256956 192 192 192
-0.80909508 -0.58751357 0.4055931 192 192 192
-0.76105613 -0.64853734 0.40861663 192 192 192
-0.70791525 -0.70616078 0.41172624 192 192 192
-0.65005183 -0.75976294 0.41489473 192 192 192
-0.58794349 -0.80878276 0.41809312 192 192 192
-0.52215374 -0.85273826 0.42129147 192 192 192
-0.45331475 -0.89124227 0.42445996 192 192 192
-0.38210753 -0.9240135 0.42756957 192 192 192
-0.30923989 -0.95088261 0.4305931 192 192 192
-0.23450667 -0.97201526 0.43361664 192 192 192
-0.15764455 -0.98739821 0.43672624 192 192 192
-0.079325512 -0.99675202 0.43989474 192 192 192
-0.00026572225 -0.9999035 0.44309309 192 192 192
0.078795731 -0.99679404 0.44629148 192 192 192
0.15711974 -0.98748189 0.44945997 192 192 192
0.23399001 -0.97213978 0.45256954 192 192 192
0.30873445 -0.95104682 0.45559311 192 192 192
0.38161638 -0.92421645 0.45861664 192 192 192
0.45284098 -0.89148307 0.46172625 192 192 192
0.52170044 -0.85301566 0.46489471 192 192 192
0.58751357 -0.80909508 0.4680931 192 192 192
0.64964789 -0.76010835 0.47129148 192 192 192
0.7075398 -0.70653695 0.47445995 192 192 192
0.76071131 -0.64894176 0.47756955 192 192 192
0.80878276 -0.58794349 0.48059312 192 192 192
0.8519749 -0.52339834 0.48361665 192 192 192
0.89035666 -0.45505172 0.48672625 192 192 192
0.92345452 -0.38345635 0.48989472 192 192 192
0.95088261 -0.30923989 0.4930931 192 192 192
0.97235668 -0.23308709 0.49629149 192 192 192
0.98770374 -0.15571894 0.49945995 192 192 192
0.99686676 -0.077869996 0.50256956 192 192 192
0.9999035 -0.00026572225 0.50559312 192 192 192
0.99690801 0.077340148 0.50861663 192 192 192
0.98778635 0.15519395 0.51172626 192 192 192
0.97248042 0.23257026 0.51489472 192 192 192
0.95104682 0.30873445 0.51809311 192 192 192
0.92365825 0.38296548 0.52129149 192 192 192
0.89059842 0.45457843 0.52445996 192 192 192
0.85225296 0.5229454 0.52756953 192 192 192
0.80909508 0.58751357 0.5305931 192 192 192
0.76105613 0.64853734 0.53361666 192 192 192
0.70791525 0.70616078 0.53672624 192 192 192
0.65005183 0.75976294 0.5398947 192 192 192
0.58794349 0.80878276 0.54309309 192 192 192
0.52215374 0.85273826 0.54629147 192 192 192
0.45331475 0.89124227 0.54945993 192 192 192
0.38210753 0.9240135 0.55256957 192 192 192
0.30923989 0.95088261 0.55559307 192 192 192
0.23450667 0.97201526 0.55861664 192 192 192
0.15764455 0.98739821 0.56172627 192 192 192
0.079325512 0.99675202 0.56489474 192 192 192
0.00026572225 0.9999035 0.56809312 192 192 192
-0.078795731 0.99679404 0.57129151 192 192 192
-0.15711974 0.98748189 0.57445997 192 192 192
-0.23399001 0.97213978 0.57756954 192 192 192
-0.30873445 0.95104682 0.58059311 192 192 192
-0.38161638 0.92421645 0.58361661 192 192 192
-0.45284098 0.89148307 0.58672625 192 192 192
-0.52170044 0.85301566 0.58989471 192 192 192
-0.58751357 0.80909508 0.5930931 192 192 192
-0.64964789 0.76010835 0.59629148 192 192 192
-0.7075398 0.70653695 0.59945995 192 192 192
-0.76071131 0.64894176 0.60256958 192 192 192
-0.80878276 0.58794349 0.60559309 192 192 192
-0.8519749 0.52339834 0.60861665 192 192 192
-0.89035666 0.45505172 0.61172622 192 192 192
-0.92345452 0.38345635 0.61489475 192 192 192
-0.95088261 0.30923989 0.61809307 192 192 192
-0.97235668 0.23308709 0.62129146 192 192 192
-0.98770374 0.15571894 0.62445998 192 192 192
-0.99686676 0.077869996 0.62756956 192 192 192
-0.9999035 0.00026572225 0.63059312 192 192 192
-0.99690801 -0.077340148 0.63361663 192 192 192
-0.98778635 -0.15519395 0.63672626 192 192 192
-0.97248042 -0.23257026 0.63989472 192 192 192
-0.95104682 -0.30873445 0.64309311 192 192 192
-0.92365825 -0.38296548 0.64629149 192 192 192
-0.89059842 -0.45457843 0.64945996 192 192 192
-0.85225296 -0.5229454 0.65256953 192 192 192
-0.80909508 -0.58751357 0.6555931 192 192 192
-0.76105613 -0.64853734 0.65861666 192 192 192
-0.70791525 -0.70616078 0.66172624 192 192 192
-0.65005183 -0.75976294 0.6648947 192 192 192
-0.58794349 -0.80878276 0.66809309 192 192 192
-0.52215374 -0.85273826 0.67129147 192 192 192
-0.45331475 -0.89124227 0.67445993 192 192 192
-0.38210753 -0.9240135 0.67756957 192 192 192
-0.30923989 -0.95088261 0.68059307 192 192 192
-0.23450667 -0.97201526 0.68361664 192 192 192
-0.15764455 -0.98739821 0.68672627 192 192 192
-0.079325512 -0.99675202 0.68989474 192 192 192
-0.00026572225 -0.9999035 0.69309312 192 192 192
0.078795731 -0.99679404 0.69629151 192 192 192
0.15711974 -0.98748189 0.69945997 192 192 192
0.23399001 -0.97213978 0.70256954 192 192 192
0.30873445 -0.95104682 0.70559311 192 192 192
0.38161638 -0.92421645 0.70861661 192 192 192
0.45284098 -0.89148307 0.71172625 192 192 192
0.52170044 -0.85301566 0.71489471 192 192 192
0.58751357 -0.80909508 0.7180931 192 192 192
0.64964789 -0.76010835 0.72129148 192 192 192
0.7075398 -0.70653695 0.72445995 192 192 192
0.76071131 -0.64894176 0.72756958 192 192 192
0.80878276 -0.58794349 0.73059309 192 192 192
0.8519749 -0.52339834 0.73361665 192 192 192
0.89035666 -0.45505172 0.73672622 192 192 192
0.92345452 -0.38345635 0.73989475 192 192 192
0.95088261 -0.30923989 0.74309307 192 192 192
0.97235668 -0.23308709 0.74629146 192 192 192
0.98770374 -0.15571894 0.74945998 192 192 192
0.99686676 -0.077869996 0.75256956 192 192 192
0.9999035 -0.00026572225 0.75559312 192 192 192
0.99690801 0.077340148 0.75861663 192 192 192
0.98778635 0.15519395 0.76172626 192 192 192
0.97248042 0.23257026 0.76489472 192 192 192
0.95104682 0.30873445 0.76809311 192 192 192
0.92365825 0.38296548 0.77129149 192 192 192
0.89059842 0.45457843 0.77445996 192 192 192
0.85225296 0.5229454 0.77756953 192 192 192
0.80909508 0.58751357 0.7805931 192 192 192
0.76105613 0.64853734 0.78361666 192 192 192
0.70791525 0.70616078 0.78672624 192 192 192
0.65005183 0.75976294 0.7898947 192 192 192
0.58794349 0.80878276 0.79309309 192 192 192
0.52215374 0.85273826 0.79629147 192 192 192
0.45331475 0.89124227 0.79945993 192 192 192
0.38210753 0.9240135 0.80256957 192 192 192
0.30923989 0.95088261 0.80559307 192 192 192
0.23450667 0.97201526 0.80861664 192 192 192
0.15764455 0.98739821 0.81172627 192 192 192
0.079325512 0.99675202 0.81489474 192 192 192
0.00026572225 0.9999035 0.81809312 192 192 192
-0.078795731 0.99679404 0.82129151 192 192 192
-0.15711974 0.98748189 0.82445997 192 192 192
-0.23399001 0.97213978 0.82756954 192 192 192
-0.30873445 0.95104682 0.83059311 192 192 192
-0.38161638 0.92421645 0.83361661 192 192 192
-0.45284098 0.89148307 0.83672625 192 192 192
-0.52170044 0.85301566 0.83989471 192 192 192
-0.58751357 0.80909508 0.8430931 192 192 192
-0.64964789 0.76010835 0.84629148 192 192 192
-0.7075398 0.70653695 0.84945995 192 192 192
-0.76071131 0.64894176 0.85256958 192 192 192
-0.80878276 0.58794349 0.85559309 192 192 192
-0.8519749 0.52339834 0.85861665 192 192 192
-0.89035666 0.45505172 0.86172622 192 192 192
-0.92345452 0.38345635 0.86489475 192 192 192
-0.95088261 0.30923989 0.86809307 192 192 192
-0.97235668 0.23308709 0.87129146 192 192 192
-0.98770374 0.15571894 0.87445998 192 192 192
-0.99686676 0.077869996 0.87756956 192 192 192
-0.9999035 0.00026572225 0.88059312 192 192 192
-0.99690801 -0.077340148 0.88361663 192 192 192
-0.98778635 -0.15519395 0.88672626 192 192 192
-0.97248042 -0.23257026 0.88989472 192 192 192
-0.95104682 -0.30873445 0.89309311 192 192 192
-0.92365825 -0.38296548 0.89629149 192 192 192
-0.89059842 -0.45457843 0.89945996 192 192 192
-0.85225296 -0.5229454 0.90256953 192 192 192
-0.80909508 -0.58751357 0.9055931 192 192 192
-0.76105613 -0.64853734 0.90861666 192 192 192
-0.70791525 -0.70616078 0.91172624 192 192 192
-0.65005183 -0.75976294 0.9148947 192 192 192
-0.58794349 -0.80878276 0.91809309 192 192 192
-0.52215374 -0.85273826 0.92129147 192 192 192
-0.45331475 -0.89124227 0.92445993 192 192 192
-0.38210753 -0.9240135 0.92756957 192 192 192
-0.30923989 -0.95088261 0.93059307 192 192 192
-0.23450667 -0.97201526 0.93361664 192 192 192
-0.15764455 -0.98739821 0.93672627 192 192 192
-0.079325512 -0.99675202 0.93989474 192 192 192
-0.00026572225 -0.9999035 0.94309312 192 192 192
0.078795731 -0.99679404 0.94629151 192 192 192
0.15711974 -0.98748189 0.94945997 192 192 192
